# .PCD v0.7 - Point Cloud Data file format
VERSION 0.7
FIELDS x y z rgb normal_x normal_y normal_z curvature
SIZE 4 4 4 4 4 4 4 4
TYPE F F F F F F F F
COUNT 1 1 1 1 1 1 1 1
WIDTH 570
HEIGHT 1
VIEWPOINT 0 0 0 1 0 0 0
POINTS 570
DATA ascii
-0.64906216 0.62577212 0.46414822 1.3090988e-38 -0.32439432 0.66499132 0.67272204 0
-0.63660753 0.62963623 0.4655444 1.3920031e-38 -0.069910727 0.66732824 0.74147528 0
-0.61357051 0.62613046 0.46734315 7.4663775e-39 0.3868182 0.6679464 0.63578236 0
-0.6332168 0.63558495 0.46042955 1.0232223e-38 -0.052150309 0.67960322 0.7317239 0
-0.371912 -0.44061831 0.47139964 2.017783e-38 0.085149057 0.94112718 0.32715327 0
-0.36450267 -0.44125882 0.47262821 1.9993794e-38 -0.051076658 0.97509634 0.21581985 0
-0.33397931 -0.44170651 0.4777315 1.9439912e-38 -0.040142998 0.93666947 0.34790641 0
-0.31629157 -0.44006601 0.47347349 1.9807606e-38 0.036219373 0.9507423 0.30785924 0
-0.29012004 -0.4430576 0.47558823 1.8794899e-38 0.15289517 0.97055495 0.18613489 0
-0.41789144 -0.43372482 0.47466063 1.9901241e-38 0.39057952 0.80677122 0.44335979 0
-0.32633302 -0.43923384 0.4716689 1.9716852e-38 -0.04161055 0.97091228 0.23579219 0
-0.44864783 -0.42147458 0.47817484 2.0178182e-38 -0.0089276535 0.3481732 0.9373877 0
-0.43429795 -0.42273295 0.47797021 1.9624285e-38 0.073063046 0.27398744 0.95895398 0
-0.42469192 -0.42512691 0.47324821 1.9347347e-38 0.64634418 0.20962526 0.73368686 0
-0.46832648 -0.41671115 0.47962922 1.944098e-38 0.094859496 0.49078876 0.86609936 0
-0.45605499 -0.41188753 0.47548962 1.907148e-38 0.18613251 0.41581205 0.89019942 0
-0.42573237 -0.4181349 0.4725247 2.008707e-38 0.51411563 0.14933835 0.84462011 0
-0.47337186 -0.40568072 0.47723722 1.8334277e-38 0.43041265 -0.072831325 0.89968914 0
-0.45856512 -0.40326607 0.47441441 1.9256229e-38 0.10886902 0.0094655221 0.99401104 0
-0.44608167 -0.40830946 0.47376809 2.0270023e-38 -0.0094499774 0.12405107 0.99223083 0
-0.43036354 -0.40167272 0.47277331 2.128453e-38 0.51660651 0.11316098 0.84871221 0
-0.46962938 -0.3911427 0.47691193 1.6585075e-38 0.19550037 -0.079130709 0.97750598 0
-0.45213437 -0.39961398 0.47367531 1.9348784e-38 0.10886902 0.0094655221 0.99401104 0
-0.43714511 -0.39953792 0.47333121 2.2205763e-38 0.11256357 0.13132304 0.98492831 0
-0.46050844 -0.38698888 0.4751578 1.7504876e-38 0.19526565 0.092985488 0.97633243 0
-0.44227943 -0.38734975 0.47183371 2.1191254e-38 0.27565053 0.27565056 0.92088741 0
-0.46432519 -0.37970054 0.47939393 1.0779296e-38 0.45015135 -0.55314076 0.7009986 0
-0.45670146 -0.37391949 0.47503114 1.5292547e-38 0.67479396 0.67479587 0.29883716 0
-0.46426138 -0.36259669 0.47317749 1.5200348e-38 0.8587181 0.34348699 0.38028923 0
-0.49276781 -0.35513791 0.47334006 1.5844996e-38 0.96304786 0.26627186 0.040473159 0
-0.48729348 -0.35285255 0.47309825 1.6490726e-38 -0.70513678 0.70513678 -0.074594766 0
-0.4703002 -0.35201734 0.47725803 1.5108876e-38 0.8587181 0.34348699 0.38028923 0
-0.49289066 -0.3460536 0.47347465 1.2436647e-38 0.89180028 -0.33091074 0.30852956 0
-0.48863536 -0.34331891 0.4746092 7.7386455e-39 0.74060547 -0.66449165 0.099770918 0
-0.47320342 -0.34449846 0.47355428 1.492412e-38 0.52008921 0.76041824 -0.38893607 0
-0.46885529 -0.34866965 0.47182316 1.4923761e-38 0.68041295 0.27216497 0.68041492 0
-0.4881857 -0.3395533 0.47236985 1.5661324e-38 0.22784163 -0.21122827 0.95051086 0
-0.47663701 -0.32116261 0.47218394 1.5292541e-38 0.98968625 0.042415142 0.13682929 0
-0.48129284 -0.29780182 0.47815579 1.510815e-38 0.7479561 -0.035616454 0.66279197 0
-0.47643572 -0.29913282 0.47217882 1.5015954e-38 0.84680009 -0.065515563 0.527861 0
-0.47500476 -0.28308734 0.47203621 1.5015954e-38 0.80144989 -0.15861796 0.57664406 0
-0.47783041 -0.27580571 0.47744194 1.510815e-38 0.73259836 -0.20460016 0.64918286 0
-0.4719069 -0.26880637 0.47556227 1.510815e-38 0.62799376 -0.49624726 0.59946847 0
-0.46598679 -0.26052755 0.47699633 1.5292897e-38 0.61136669 -0.55225372 0.56678629 0
-0.46478513 -0.25794679 0.478246 1.3909961e-38 0.60446703 -0.55896878 0.56760335 0
-0.45899361 -0.25482222 0.47200865 1.5015957e-38 0.82479841 -0.47524181 0.30635422 0
-0.45813265 -0.24540168 0.47992539 1.529362e-38 0.77136552 -0.44445425 0.4554731 0
-0.45512617 -0.23309524 0.47315091 1.5385816e-38 0.81719482 0.31520385 0.48253417 0
-0.46002603 -0.22521484 0.47630134 1.5017033e-38 0.81719482 0.31520385 0.48253417 0
-0.46671075 -0.21691582 0.477873 1.5938266e-38 0.67163348 0.44891515 0.5893926 0
-0.46841234 -0.20630172 0.47071058 1.5846071e-38 0.79300022 0.53003579 0.30035433 0
-0.48423374 -0.19150959 0.47432533 1.3727739e-38 0.63213247 0.69424951 0.34413093 0
-0.47333464 -0.19967955 0.47106883 1.5659891e-38 0.5945918 0.6995216 0.39639649 0
-0.56258291 -0.18019131 0.47503871 4.5085643e-39 0.16946886 0.98542851 0.014525908 0
-0.53595024 -0.18898475 0.4736428 2.4799171e-39 0.35699421 0.91425419 -0.19155803 0
-0.52378285 -0.18684286 0.47525343 6.0737194e-39 -0.23478405 0.96675694 0.10127897 0
-0.51917249 -0.18519709 0.4700045 7.5466943e-39 -0.23499329 0.96761858 0.092154346 0
-0.50319362 -0.18356779 0.47347289 1.4832645e-38 -0.092147067 0.92146933 0.37736353 0
-0.49048623 -0.18640518 0.47559679 1.5475859e-38 0.67225909 0.67027593 0.31432134 0
-0.62046963 -0.17126596 0.47045314 4.0486666e-39 -0.48266956 0.44302988 0.75548303 0
-0.61683899 -0.17321295 0.4765029 2.2980398e-39 0.44188678 0.80692238 -0.3919341 0
-0.60320842 -0.17365965 0.47655472 2.022176e-39 -0.023716304 0.99606645 0.085377164 0
-0.59357417 -0.17381412 0.47606835 7.549211e-39 0.065728106 0.99774671 -0.013465098 0
-0.58466876 -0.1755639 0.47499651 5.4287157e-39 0.15588023 0.93528271 -0.31772259 0
-0.57454562 -0.17809954 0.47544181 4.7837079e-39 0.31201509 0.91870826 -0.24211931 0
-0.68345201 -0.16070947 0.47556731 1.3539396e-38 0.40564343 0.819089 -0.40564343 0
-0.62895358 -0.16820052 0.47325671 9.85265e-39 0.43878567 0.80829048 -0.39259863 0
-0.74579728 -0.15224954 0.4724189 1.3542996e-38 -0.16440693 0.98639262 0 0
-0.69425714 -0.15272546 0.47329491 1.5477308e-38 0.7617768 0.38088676 -0.52404326 0
-0.6789223 -0.15908816 0.47979313 1.3263888e-38 0 0.89612788 -0.44379592 0
-0.66958755 -0.15974514 0.47683427 8.563e-39 -0.18594341 0.97620589 -0.11156671 0
-0.6506198 -0.15931006 0.47799116 8.7441431e-39 0.16483298 0.96152389 -0.21977721 0
-0.73686528 -0.14732583 0.47737417 1.2988748e-38 0 0.70710719 -0.70710647 0
-0.72523469 -0.14912663 0.47518909 1.3357174e-38 -0.31992361 0.66994387 -0.66994327 0
-0.69393671 -0.14550316 0.47749251 1.2713597e-38 0.65276897 0.30633989 -0.69285536 0
-0.60441792 -0.14578056 0.47103262 9.6708021e-39 -0.5659669 -0.79926503 0.20213082 0
-0.59558499 -0.14312834 0.47319031 1.1793751e-38 0.602036 -0.33548662 0.7245698 0
-0.70478439 -0.13727698 0.47326583 9.5818407e-39 -0.047205571 0.99131626 -0.12273438 0
-0.61553836 -0.13659859 0.4715431 9.7618991e-39 -0.71139967 -0.020962635 0.70247501 0
-0.6016891 -0.13509007 0.47806209 9.7661983e-39 -0.34049752 -0.011349868 0.9401769 0
-0.59275174 -0.13151677 0.47956568 9.7729988e-39 0.51927257 -0.64051092 0.56577533 0
-0.61010748 -0.12219951 0.47589841 8.2964688e-39 -0.61441964 -0.33364758 0.71495998 0
-0.60903054 -0.1265558 0.47550631 7.6485855e-39 -0.34049752 -0.011349868 0.9401769 0
-0.58490872 -0.12956955 0.47379678 7.9305492e-39 0.61570823 -0.6439091 0.45418546 0
-0.57158381 -0.12125457 0.47020966 7.4692165e-39 0.44912794 -0.78704911 0.42289215 0
-0.61013466 -0.11715949 0.47822699 9.4957113e-39 -0.61441964 -0.33364758 0.71495998 0
-0.60198706 -0.11097085 0.479561 8.0184372e-39 -0.44308421 0.73337936 0.5155881 0
-0.5767206 -0.11759435 0.47999722 7.837999e-39 0.47684315 -0.71828324 0.50664568 0
-0.56977206 -0.11855156 0.47214547 7.9301946e-39 0.46113291 -0.6946184 0.55214292 0
-0.59269249 -0.10821493 0.47848028 1.17041e-38 0.015580262 0.81796622 0.5750553 0
-0.58407938 -0.10699247 0.47650802 7.8372787e-39 0.015580262 0.81796622 0.5750553 0
-0.57927918 -0.10408983 0.47130591 1.2718254e-38 0.018840009 0.98910362 0.14601058 0
-0.51590627 -0.091225527 0.47121984 8.1102797e-39 -0.70304894 -0.49289829 0.51261443 0
-0.50151443 -0.081835732 0.47796887 8.7545785e-39 0.54240787 -0.81361294 0.20935062 0
-0.49943608 -0.08331687 0.47112843 8.7552974e-39 0.41530898 -0.62296438 0.66289806 0
-0.52100861 -0.078805029 0.47457141 7.4659949e-39 -0.56293386 -0.39466545 0.72618502 0
-0.51825225 -0.073377654 0.47963992 1.2071081e-38 -0.58451372 -0.29965481 0.75402308 0
-0.4926064 -0.079574414 0.47068065 8.9382453e-39 0.19651978 -0.67146271 0.71450531 0
-0.48656839 -0.072670504 0.47552079 1.1793788e-38 0.62885427 -0.60489595 0.48851129 0
-0.53202695 -0.067125179 0.47156048 1.1425711e-38 -0.54595482 -0.27988732 0.78968126 0
-0.52716178 -0.060582075 0.47850519 1.133352e-38 -0.57614434 -0.34710118 0.73998547 0
-0.48144636 -0.065268651 0.4745245 1.4097235e-38 0.70581436 -0.39398846 0.5887267 0
-0.53546023 -0.054280896 0.47475687 1.3545133e-38 -0.52267629 -0.41383308 0.7453534 0
-0.52959394 -0.056188621 0.47851443 1.1148773e-38 -0.5090217 -0.254511 0.82226574 0
-0.4738915 -0.05363442 0.47190037 9.8609149e-39 0.56758857 -0.28069037 0.77398717 0
-0.46754134 -0.052175153 0.47017977 1.0319749e-38 0.24654554 -0.29057232 0.92454481 0
-0.54416049 -0.040098555 0.47366756 1.2255472e-38 -0.59828115 -0.27634895 0.75212431 0
-0.53710234 -0.046280157 0.47733641 1.0965449e-38 -0.64320493 -0.31559449 0.69763005 0
-0.47202015 -0.045226455 0.47482502 9.5886314e-39 0.45780304 -0.44769529 0.76810503 0
-0.45259953 -0.040978283 0.47032481 1.6770189e-38 0.23505151 -0.33578789 0.91213888 0
-0.54886317 -0.033823885 0.47230741 1.1427148e-38 -0.48412338 -0.22361892 0.8459428 0
-0.452591 -0.034990158 0.47258142 1.3824956e-38 0.46098435 -0.65854901 0.59481657 0
-0.44854537 -0.031885773 0.47203887 1.0048184e-38 0.57800931 -0.59865361 0.55454409 0
-0.55574411 -0.024818227 0.47058192 1.1425706e-38 -0.61623746 -0.36655572 0.69705689 0
-0.54894209 -0.024532102 0.4765195 1.1611174e-38 -0.5996052 -0.35666233 0.71642566 0
-0.44828373 -0.020960007 0.47319138 8.3897463e-39 0.8268761 -0.086625412 0.55567253 0
-0.55793965 -0.015694335 0.47452992 1.1150917e-38 -0.54909819 -0.50820518 0.66348982 0
-0.45334414 -0.017017553 0.47818911 1.0325839e-38 0.56216758 -0.23166291 0.79391426 0
-0.44765934 -0.0099516148 0.4739607 7.6525358e-39 0.76170743 0.02466524 0.64745152 0
-0.57145381 0.00038714334 0.47049552 1.0506984e-38 -0.64444709 -0.23629807 0.72722161 0
-0.56619138 0.0039219917 0.47659495 1.0873968e-38 -0.66475528 -0.28194833 0.69181329 0
-0.46048495 0.0057789078 0.47809377 6.6401789e-39 0.023785232 0.038057499 0.99899244 0
-0.45641485 0.0032165411 0.47809449 5.7182226e-39 0.023785232 0.038057499 0.99899244 0
-0.44792137 0.00012785103 0.47433305 6.823494e-39 0.60105026 -0.051518608 0.79754907 0
-0.5833627 0.019839142 0.47144657 1.1703737e-38 -0.58462471 -0.6024487 0.54338712 0
-0.56978953 0.010962328 0.47616458 1.0965449e-38 -0.60032266 -0.55155778 0.57913446 0
-0.47111467 0.016164312 0.4777624 5.0725029e-39 0.02374202 0.071226053 0.9971776 0
-0.46239468 0.015026633 0.47763604 4.9803072e-39 0.02374202 0.071226053 0.9971776 0
-0.44673502 0.013537601 0.47273546 5.7182254e-39 0.56607199 0.33964381 0.75113553 0
-0.58855802 0.026296683 0.47301409 1.1058368e-38 -0.58383721 -0.60163724 0.54513007 0
-0.47275808 0.024271896 0.47809383 4.7966348e-39 0.95917076 0.020150386 0.28210905 0
-0.46636331 0.02779129 0.47514305 4.6118834e-39 0.41770524 0.63684905 0.64803219 0
-0.4526872 0.023819581 0.47135192 5.3487268e-39 0.5443601 0.53635162 0.64497983 0
-0.65155488 0.038815428 0.47045463 1.0413361e-38 0.081860021 -0.63668782 0.76676434 0
-0.5947147 0.034784779 0.4756211 1.0228603e-38 -0.58025163 -0.58682817 0.56474853 0
-0.48018765 0.038862515 0.47451189 3.4133459e-39 0.32102948 0.56180161 0.76244283 0
-0.4723112 0.032860082 0.47547129 4.1512668e-39 0.69480133 0.42663056 0.57899702 0
-0.4681403 0.036793292 0.47015086 4.2431065e-39 0.38982341 0.31991777 0.86353362 0
-0.64169961 0.048269276 0.47787306 9.8616309e-39 0.087660357 -0.68180144 0.72626615 0
-0.63195682 0.044663347 0.47135389 9.6768711e-39 0.23434326 -0.55294544 0.79958403 0
-0.62645996 0.04769893 0.47187465 9.6765166e-39 0.27572459 -0.65058684 0.70761055 0
-0.61469185 0.046423703 0.47114587 9.767992e-39 -0.41947815 -0.58355486 0.6953429 0
-0.60516608 0.046056591 0.47832316 1.0136412e-38 -0.4884266 -0.64105886 0.59201616 0
-0.59694737 0.040826261 0.4796536 1.0321155e-38 -0.58742219 -0.58742595 0.55665606 0
-0.49345618 0.049700618 0.47286895 4.9810261e-39 0.78789127 0.31917819 -0.52664292 0
-0.4861722 0.043578535 0.47469696 3.1385568e-39 0.62104309 0.62442541 -0.47370702 0
-0.47233027 0.04295985 0.47005391 4.1512668e-39 0.52177542 0.32038704 0.79063427 0
-0.66775489 0.054584056 0.47859553 1.5664192e-38 -0.64590758 -0.49881285 0.57791793 0
-0.6256938 0.05583417 0.47786638 8.571604e-39 0.30687502 -0.52234477 0.79560268 0
-0.61547619 0.052253947 0.47616124 9.8605407e-39 -0.56473887 -0.45582372 0.6879642 0
-0.50265527 0.059238225 0.47519934 5.1646999e-39 0.40423572 0.62920213 -0.66385102 0
-0.49750501 0.05508849 0.47446591 4.980666e-39 0.44613323 0.544523 -0.71025336 0
-0.69849223 0.061913766 0.47015962 3.7835521e-39 0.081619099 -0.59103459 0.80250639 0
-0.68415427 0.063837081 0.47011787 9.4003039e-39 0.081619099 -0.59103459 0.80250639 0
-0.51907104 0.068547942 0.47117156 3.8746799e-39 0.67914182 0.53616434 -0.50129265 0
-0.50735748 0.061770268 0.47473592 4.7044364e-39 0.40423572 0.62920213 -0.66385102 0
-0.52057415 0.076102063 0.47436434 3.9668756e-39 0.62411779 0.34983167 -0.69863778 0
-0.52593935 0.084417805 0.47241676 3.137475e-39 0.65251744 0.22993398 -0.72204673 0
-0.51923418 0.088225074 0.4798705 4.4271349e-39 0.66378564 0.24557729 -0.70645624 0
-0.53103763 0.097659767 0.47285751 3.6902873e-39 0.61896133 0.39743811 -0.67744362 0
-0.52987987 0.097951576 0.47408649 3.9668756e-39 0.61896133 0.39743811 -0.67744362 0
-0.53691816 0.11272018 0.47724491 3.0452794e-39 0.66296607 0.43813464 -0.60705352 0
-0.5452925 0.12282951 0.47326934 2.9530852e-39 0.70805407 0.27985018 -0.64833897 0
-0.55668753 0.14916788 0.47755632 3.4151409e-39 0.88481736 0.45125768 -0.11603773 0
-0.54866433 0.14245716 0.47882748 2.9541628e-39 0.71249467 0.33033949 -0.61905342 0
-0.74581593 0.1574785 0.47325525 1.1798829e-38 -0.64370829 0.76526499 0.0030003425 0
-0.57234955 0.15691847 0.47784814 1.0415138e-38 0.43752143 0.11466862 0.89186668 0
-0.73541272 0.16451833 0.47656485 9.4042611e-39 -0.52892232 0.84789193 0.036338232 0
-0.56834942 0.16465738 0.47492492 1.1889566e-38 0.43773067 0.110475 0.89229321 0
-0.71304697 0.17541538 0.47495031 9.1283917e-39 -0.33461249 0.94169486 -0.03528595 0
-0.70620263 0.1778989 0.47444981 8.2078731e-39 -0.36462587 0.92568034 -0.10081573 0
-0.57213712 0.17183687 0.47541267 9.1262211e-39 0.53842056 0.20528378 0.81728935 0
-0.6825577 0.18411031 0.4796356 1.08819e-38 -0.18492177 0.9708395 -0.15256032 0
-0.67592978 0.18563303 0.47538584 9.1308944e-39 -0.26640323 0.93241298 -0.2442036 0
-0.66030318 0.18981698 0.47464016 7.6586524e-39 -0.20297919 0.94723445 -0.24808541 0
-0.5755564 0.18742298 0.4721899 5.3479981e-39 0.84851789 0.3827889 0.36536276 0
-0.65004969 0.19284868 0.47374403 8.5784507e-39 -0.30060342 0.94218707 -0.14805782 0
-0.64375877 0.19495532 0.47437733 1.0328021e-38 -0.30060342 0.94218707 -0.14805782 0
-0.62425643 0.19938648 0.47276708 1.1342892e-38 -0.20597674 0.91739124 -0.34053898 0
-0.58613098 0.19365545 0.47480831 8.7581616e-39 0.50554562 0.80099458 0.32067314 0
-0.62216586 0.20089912 0.47986448 1.2816584e-38 -0.18746628 0.974828 -0.12069297 0
-0.61408705 0.20063004 0.47553328 8.7588987e-39 -0.07465364 0.97982919 -0.18536872 0
-0.60197473 0.20167771 0.47580838 8.2078703e-39 -0.075884789 0.99598801 0.047427393 0
-0.5971806 0.20134202 0.47416672 1.45629e-38 0.28002444 0.94777834 -0.15265122 0
-0.5794 0.37952745 0.47166491 9.587558e-39 0.3807447 -0.60258693 0.70137191 0
-0.58252347 0.38987172 0.47318843 6.3603578e-39 -0.56281543 0.30167112 0.76956707 0
-0.57776654 0.38440347 0.47292125 6.5443875e-39 -0.48938471 -0.39380383 0.77808815 0
-0.53515351 0.38841933 0.47454834 1.6864899e-38 0.15559418 -0.94960612 0.27210057 0
-0.57469958 0.3926785 0.47361797 7.1901157e-39 0.58044571 0.29718798 0.75813061 0
-0.5472247 0.39666373 0.47857329 1.9258381e-38 -0.51721674 -0.64439207 0.56324577 0
-0.56837773 0.40887731 0.47749498 8.3890134e-39 -0.50902677 -0.78018838 0.36359024 0
-0.53025258 0.40076208 0.47537616 2.0456927e-38 0.90285194 -0.32674685 0.27945444 0
-0.52882636 0.40269324 0.47302663 1.9534974e-38 0.90285194 -0.32674685 0.27945444 0
-0.58467168 0.41894972 0.47399804 4.3342119e-39 -0.48056269 -0.76453173 0.42959374 0
-0.56904358 0.41017631 0.4789612 9.03438e-39 -0.60095304 -0.6742391 0.42925179 0
-0.52748394 0.41323709 0.47802806 1.9443491e-38 0.94964314 -0.1085298 0.29393744 0
-0.66491079 0.44461253 0.47475716 9.2696454e-40 -0.5145334 -0.67390287 0.53019834 0
-0.52659684 0.44952971 0.47746316 9.2194873e-39 0.76078123 0.38697761 0.52101856 0
-0.6789127 0.45262158 0.47092319 1.2953827e-39 -0.59485126 -0.49174541 0.63587612 0
-0.52182347 0.45981181 0.47161478 1.0140746e-38 0.8631652 -0.19729583 0.46477976 0
-0.68698168 0.46480617 0.47225726 1.2961002e-39 -0.63897741 -0.46858203 0.61003172 0
-0.52534461 0.46538866 0.47523636 8.7592477e-39 0.53121716 -0.12142163 0.83848983 0
-0.69202024 0.47136527 0.47196823 2.1258482e-39 -0.71599925 -0.47805014 0.50873691 0
-0.68890929 0.47606999 0.47431135 2.7701344e-39 -0.67978048 0.33315864 0.65337884 0
-0.51952434 0.47981268 0.47252029 6.3621641e-39 0.71368784 0.010195208 0.70038974 0
-0.69004405 0.48068482 0.47019655 2.7704904e-39 -0.75448996 0.36977354 0.54222918 0
-0.6841346 0.48336038 0.47546011 2.9548985e-39 -0.6310361 0.3523908 0.69109631 0
-0.52074653 0.48210934 0.4737322 6.8227807e-39 0.71368784 0.010195208 0.70038974 0
-0.68223315 0.49344334 0.47205713 1.9411039e-39 -0.50514406 0.56831765 0.64949554 0
-0.67744857 0.49337375 0.47591874 1.2031899e-39 -0.52405697 0.52419728 0.67125368 0
-0.52554023 0.4979142 0.47465068 7.3763146e-39 0.61119282 0.51640874 0.59980452 0
-0.66988671 0.50063413 0.47641274 2.0315044e-39 -0.53646171 0.51346976 0.66974449 0
-0.53429717 0.50291055 0.47927225 4.9795814e-39 0.61119282 0.51640874 0.59980452 0
-0.66339576 0.51260424 0.47243679 0 0 0 0 0
-0.65444696 0.51208186 0.47955298 0 0 0 0 0
-0.53620684 0.51189947 0.47569385 6.3614438e-39 0.87942374 0.39882004 0.25991613 0
-0.64553213 0.52086461 0.47255975 2.0322205e-39 -0.33908737 0.77400452 0.53473049 0
-0.63358217 0.52624786 0.47517833 3.965449e-39 -0.47336912 0.67028219 0.57152736 0
-0.54274809 0.52543783 0.47518751 6.0848527e-39 0.87913346 0.43119389 0.20296834 0
-0.62341386 0.5334245 0.47400796 1.9385899e-39 -0.42781651 0.73109013 0.53148872 0
-0.5507189 0.53875864 0.4774152 8.2946696e-39 0.85112828 0.33263332 0.40612274 0
-0.54704648 0.53639072 0.47157308 7.2816022e-39 0.80593604 0.33666396 0.4869543 0
-0.62209356 0.54944974 0.47394753 3.1349737e-39 -0.52080041 -0.10408308 0.84730965 0
-0.61459023 0.54355204 0.47687939 8.0195302e-39 -0.39651522 -0.07407473 0.91503477 0
-0.54890084 0.54425091 0.47030914 7.0975697e-39 0.8680582 0.28108498 0.40922639 0
-0.62825871 0.55717182 0.47253618 3.8725388e-39 -0.4490945 -0.34662578 0.82350755 0
-0.55613863 0.55732572 0.47400743 7.7422217e-39 0.60392606 0.49069342 0.6280871 0
-0.64086986 0.56492496 0.47163352 3.4129941e-39 -0.51160693 -0.52027708 0.68379098 0
-0.63469672 0.56601387 0.47494927 3.4115564e-39 -0.34324387 -0.49599415 0.79760486 0
-0.62287259 0.56033683 0.47654885 9.5832658e-39 -0.27344537 -0.41016796 0.87005162 0
-0.56084895 0.56407326 0.47329491 9.9534762e-39 0.59069026 0.46790558 0.65738076 0
-0.55662274 0.56107634 0.47193602 5.9926585e-39 0.52812064 0.42644554 0.73432463 0
-0.65026289 0.57676029 0.47331664 3.0438501e-39 -0.4327442 -0.44007787 0.78680617 0
-0.57882845 0.57568574 0.47939062 1.3820291e-38 -0.26233184 0.50508726 0.82223415 0
-0.66026384 0.5881266 0.47088918 4.1498403e-39 -0.58320659 -0.31243244 0.74983734 0
-0.65516496 0.58782244 0.4740757 3.687786e-39 -0.46661961 -0.24997507 0.84839767 0
-0.57559109 0.58510619 0.47250986 8.1124349e-39 0.63398725 0.4088341 0.65644103 0
-0.66242158 0.59609264 0.47254959 5.2569109e-39 -0.56331921 -0.12411305 0.81686437 0
-0.65523255 0.59320438 0.47640121 6.1767008e-39 -0.48314807 -0.3327477 0.80984372 0
-0.59427792 0.59482843 0.47886038 9.583263e-39 0.46558073 0.44370311 0.7657429 0
-0.58918267 0.59650826 0.47510248 1.7231886e-38 0.44621441 0.37256575 0.81368762 0
-0.66223085 0.60309529 0.47197911 7.9316534e-39 -0.42384103 0.28029573 0.86127418 0
-0.65467513 0.60466188 0.47511727 5.439849e-39 -0.37885299 0.41560459 0.82688767 0
-0.59379339 0.60107553 0.47522205 9.3077579e-39 0.4284108 0.45404434 0.78122211 0
-0.58935696 0.60282773 0.47121841 1.6406082e-38 0.55904329 0.59249312 0.58001941 0
-0.65822631 0.61332488 0.47007504 4.9795842e-39 -0.29563433 0.29563433 0.9084056 0
-0.64772415 0.61876988 0.4717209 8.298624e-39 -0.29563433 0.29563433 0.9084056 0
-0.62392616 0.61648166 0.47758466 1.1708055e-38 -0.052402709 0.54086673 0.83947426 0
-0.61191732 0.61887717 0.47386253 1.5208253e-38 0.37285885 0.44903505 0.81199986 0
-0.60762781 0.61438018 0.47426984 1.2351628e-38 0.42561173 0.51965165 0.74082178 0
-0.64459932 0.62037569 0.47166336 1.2999148e-38 -0.24450313 0.66754001 0.70328414 0
-0.62633932 0.62253296 0.47283792 1.2721845e-38 -0.062733069 0.59881443 0.79842716 0
-0.6154983 0.62080294 0.47376648 1.4378848e-38 0.29898125 0.697613 0.65111166 0
-0.39597765 -0.44128427 0.48447838 1.9809763e-38 0.10596324 0.96527565 0.23877773 0
-0.38651782 -0.44137222 0.48156422 1.9531737e-38 -0.055732202 0.97532117 0.21364126 0
-0.37467992 -0.44149232 0.48288685 1.9163672e-38 0.089880414 0.99342155 0.070959188 0
-0.36527917 -0.44259682 0.48688674 1.9348422e-38 0.075778209 0.9945907 0.071042694 0
-0.35277134 -0.44302443 0.48447955 1.9348424e-38 -0.051296301 0.97928965 0.19585849 0
-0.34066087 -0.44275111 0.48100176 2.0086351e-38 0.1250845 0.97287917 0.19457638 0
-0.33483028 -0.44402424 0.48416781 1.9993798e-38 0.042750191 0.96105629 0.27302605 0
-0.32206786 -0.44352454 0.48369253 1.8610505e-38 -0.0089276647 0.9373877 0.3481732 0
-0.30488294 -0.44405189 0.48449495 1.8887092e-38 0.027882775 0.95099658 0.30794162 0
-0.29691407 -0.44474569 0.48603791 1.8979647e-38 0.027334062 0.95257992 0.30305845 0
-0.46483856 -0.43170485 0.48735002 1.8795252e-38 0.16808012 0.81705672 0.55151373 0
-0.44711441 -0.43368605 0.48618084 1.9347345e-38 0.01733911 0.84566492 0.53343248 0
-0.43619704 -0.43123049 0.48157585 1.9994155e-38 0.038601223 0.86129206 0.50664186 0
-0.42223591 -0.43726701 0.48473567 2.0085989e-38 0.30098397 0.87459832 0.38011375 0
-0.41110736 -0.43906978 0.48173407 2.0270381e-38 0.20080295 0.93708003 0.28558582 0
-0.40369523 -0.43983987 0.48213315 1.9901244e-38 0.050043102 0.95536512 0.29115841 0
-0.47694966 -0.42115763 0.48631406 1.7597069e-38 0.58697724 0.39914417 0.7043733 0
-0.46122435 -0.42957896 0.4841215 1.8333915e-38 0.27470043 0.33479229 0.90136224 0
-0.44812477 -0.42755723 0.48040205 2.0270381e-38 0.073063046 0.27398744 0.95895398 0
-0.48157364 -0.41563916 0.48704022 1.7227925e-38 0.58697724 0.39914417 0.7043733 0
-0.46963823 -0.41758877 0.48027021 1.9717567e-38 0.094859496 0.49078876 0.86609936 0
-0.47710648 -0.40468591 0.48022845 1.8334633e-38 0.63894975 -0.062068928 0.76674038 0
-0.47669598 -0.39950818 0.48030555 1.7597069e-38 0.63894975 -0.062068928 0.76674038 0
-0.46942651 -0.38143557 0.48130068 1.0227918e-38 0.45015135 -0.55314076 0.7009986 0
-0.47119227 -0.37625146 0.48701605 1.4556418e-38 0.75900835 -0.41858029 0.49869511 0
-0.46625954 -0.36936194 0.48632267 9.4889136e-39 0.67479396 0.67479587 0.29883716 0
-0.48401332 -0.35490569 0.48368773 1.5937552e-38 0.30151057 0.90453452 -0.30151057 0
-0.47477019 -0.35227853 0.48512176 1.6029746e-38 0.38715106 0.65196395 0.65196395 0
-0.49012679 -0.34549642 0.480519 0 0.16660227 -0.97184741 -0.16660227 0
-0.48410094 -0.34011179 0.48137954 0 0.674927 -0.62571377 -0.39109564 0
-0.47249475 -0.34586257 0.48201752 1.5108153e-38 0.94072139 0.28221524 0.18814322 0
-0.48396569 -0.33415243 0.48927128 1.5661324e-38 0.81394696 0.2441842 0.52712846 0
-0.48277998 -0.3245075 0.48384485 1.5384737e-38 0.83463693 0.10588259 0.5405277 0
-0.48676595 -0.31566486 0.48756352 1.5292541e-38 0.73718244 0.19969112 0.64551181 0
-0.49074766 -0.29445276 0.4890874 1.510815e-38 0.75203568 -0.028222172 0.65851796 0
-0.48958042 -0.28479245 0.48820737 1.5292541e-38 0.7479561 -0.035616454 0.66279197 0
-0.48432881 -0.27460039 0.48694646 1.510815e-38 0.71651947 -0.31154531 0.62413085 0
-0.47185183 -0.2636674 0.48026881 1.510815e-38 0.61225861 -0.55041325 0.56761312 0
-0.46614695 -0.25213769 0.48541701 1.4832642e-38 0.60446703 -0.55896878 0.56760335 0
-0.45941558 -0.24544984 0.48205116 1.5017033e-38 0.77136552 -0.44445425 0.4554731 0
-0.47114155 -0.22411521 0.48833489 1.5569845e-38 0.61301965 0.44657177 0.651752 0
-0.47723088 -0.21346705 0.48751807 1.6399247e-38 0.74313778 0.41114593 0.52792543 0
-0.46954244 -0.21742265 0.48148584 1.5754598e-38 0.67163348 0.44891515 0.5893926 0
-0.47642222 -0.2051388 0.48009902 1.6491436e-38 0.83996671 0.31198677 0.44398221 0
-0.55401874 -0.18232062 0.48583078 2.3891578e-39 0.11798992 0.99111754 0.061355241 0
-0.5369066 -0.18539259 0.48900494 4.9684607e-39 0.35699421 0.91425419 -0.19155803 0
-0.52319157 -0.18743002 0.48222885 3.7717265e-39 -0.23478405 0.96675694 0.10127897 0
-0.50546175 -0.18704146 0.48140126 1.3265682e-38 -0.092147067 0.92146933 0.37736353 0
-0.49833074 -0.18940547 0.48963058 3.9575457e-39 0.19955121 0.97455418 0.10209582 0
-0.58862507 -0.1739631 0.48524314 6.7187413e-39 -0.033193067 0.99579763 0.08535412 0
-0.57643378 -0.17638373 0.48646301 5.2450503e-39 0.7661745 0.63847649 -0.072968625 0
-0.56777477 -0.17959958 0.48827714 1.8370687e-39 0.22242077 0.97308803 0.060239114 0
-0.63087398 -0.16350451 0.48077866 1.1418897e-38 0.43878567 0.80829048 -0.39259863 0
-0.62758076 -0.16289908 0.48643076 9.2998462e-39 0.35704231 0.88232768 -0.30662447 0
-0.61532044 -0.1699253 0.48498368 5.5101298e-40 0.44188678 0.80692238 -0.3919341 0
-0.66050172 -0.15734363 0.48428109 7.0892979e-39 0.097590402 0.97589993 -0.1951808 0
-0.65111482 -0.15810657 0.48288518 0 0 0 0 0
-0.64335406 -0.15843967 0.48743364 9.2087211e-39 0.11109059 0.97966623 -0.16707163 0
-0.74492407 -0.14240018 0.48232818 1.2436654e-38 -0.33810219 0.66546524 -0.66546452 0
-0.68012756 -0.14167982 0.48970473 1.3540474e-38 0 0.39021158 -0.92072523 0
-0.6738739 -0.14578566 0.48796463 1.1698007e-38 0 0.39021158 -0.92072523 0
-0.74573165 -0.13661455 0.48855785 1.0962246e-38 -0.56293833 0.74628061 -0.35519812 0
-0.71777302 -0.13746569 0.48267514 1.2066072e-38 -0.35178864 0.80921668 -0.47054556 0
-0.68699521 -0.13643456 0.4882758 1.8521204e-38 0.11278563 0.9860903 -0.12208735 0
-0.60119307 -0.11487529 0.48435059 7.8358382e-39 -0.63284469 0.23921247 0.73639995 0
-0.58592612 -0.11698174 0.48439464 8.575557e-39 0.24439493 -0.050474659 0.96836126 0
-0.57705504 -0.11297624 0.48058093 8.113867e-39 0.37268582 0.6561653 0.65616494 0
-0.50896198 -0.076387376 0.48280317 8.6627458e-39 -0.28476048 -0.45774335 0.8422485 0
-0.49462667 -0.075546205 0.48466623 8.6616612e-39 0.54348177 -0.80641586 0.23306884 0
-0.50767583 -0.06576331 0.48720193 1.1517915e-38 -0.30734515 -0.28137228 0.9090482 0
-0.48811373 -0.069667086 0.48370531 1.0963305e-38 0.81576848 -0.4744769 0.3307468 0
-0.51579106 -0.052710857 0.48813552 1.1609026e-38 -0.5090217 -0.254511 0.82226574 0
-0.48114964 -0.05689539 0.48463291 9.6733048e-39 0.82633001 -0.46431839 0.31872746 0
-0.52157557 -0.0455731 0.48775351 1.0227532e-38 -0.49126616 -0.35900208 0.79358375 0
-0.51711345 -0.049285941 0.48904675 1.0688152e-38 -0.55225098 -0.41813591 0.72123587 0
-0.53596258 -0.03265195 0.48452854 1.0688506e-38 -0.64555627 -0.30496645 0.70018035 0
-0.47654063 -0.035017926 0.48901582 9.3134836e-39 0.87254852 -0.26245779 0.41203761 0
-0.53992462 -0.020436058 0.48605466 1.0688862e-38 -0.64782697 -0.29430032 0.70264328 0
-0.46433452 -0.02322829 0.48177069 8.7599539e-39 0.46421781 -0.29735547 0.83431506 0
-0.55500114 -0.010964527 0.48040491 1.1703366e-38 -0.48981127 -0.53013891 0.6921255 0
-0.467637 -0.016846146 0.48817503 8.2060627e-39 0.58271092 -0.44696617 0.6787262 0
-0.45883477 -0.010631559 0.48460388 7.4692151e-39 0.58802056 -0.40905705 0.6977852 0
-0.55033702 -0.0033346638 0.48792499 1.0505194e-38 -0.52872378 -0.40283641 0.74711049 0
-0.54613203 -0.0058160024 0.48956293 1.0688862e-38 -0.52872378 -0.40283641 0.74711049 0
-0.46196455 -0.0043385304 0.4820382 6.3635906e-39 0.53897786 0.54811537 0.63958776 0
-0.56035972 0.0037660187 0.48235658 1.1426071e-38 -0.68465346 -0.30822772 0.66048878 0
-0.47236538 0.0063863806 0.48280129 5.9018964e-39 0.79119343 0.42513731 0.43962622 0
-0.56542641 0.014064465 0.48383892 1.1058366e-38 -0.56583333 -0.60288155 0.56246471 0
-0.57644701 0.025741542 0.48521197 1.0597385e-38 -0.56923658 -0.60706115 0.55447865 0
-0.47553498 0.022805132 0.48870379 4.2434611e-39 0.97372025 -0.027821047 0.22604188 0
-0.58583283 0.032801408 0.48288959 1.1150919e-38 -0.58122331 -0.59669864 0.55329031 0
-0.59558856 0.045553923 0.48612589 1.0136763e-38 -0.55017585 -0.60972404 0.57056385 0
-0.48221308 0.046710424 0.48401576 3.2296735e-39 0.62104309 0.62442541 -0.47370702 0
-0.656142 0.052174442 0.48300686 1.5205735e-38 0.097292066 -0.35786122 0.9286924 0
-0.64714026 0.053671423 0.48211211 1.4929871e-38 0.097292066 -0.35786122 0.9286924 0
-0.63787836 0.057115741 0.48421052 8.5719655e-39 0.49911916 -0.6153332 0.61011899 0
-0.60154092 0.054028258 0.48820743 9.2166133e-39 -0.63279831 0.051506553 0.77260178 0
-0.48781598 0.055904824 0.48630425 5.4412854e-39 0.73193091 0.47426099 -0.48923782 0
-0.74591476 0.065225035 0.48646933 1.0688163e-38 0.19668846 -0.9509269 0.23885486 0
-0.73136765 0.067271821 0.48426896 9.4907142e-39 0.3219122 -0.81746632 0.47762054 0
-0.67352951 0.064295277 0.48071182 1.9811919e-38 -0.49005872 -0.29046124 0.82187265 0
-0.66335052 0.061786216 0.48341516 2.0366175e-38 -0.23161754 0.0046331286 0.9727959 0
-0.65183872 0.066019461 0.4848147 1.1615497e-38 -0.5134514 -0.5769698 0.63519567 0
-0.64788526 0.062987827 0.48525667 8.3868568e-39 -0.5134514 -0.5769698 0.63519567 0
-0.63432187 0.064455613 0.48870364 6.0830338e-39 0.49911916 -0.6153332 0.61011899 0
-0.61511874 0.06487415 0.48150179 9.2151769e-39 -0.15091331 -0.49352857 0.85653651 0
-0.60910255 0.060900491 0.48155597 1.0136765e-38 -0.63279831 0.051506553 0.77260178 0
-0.49249977 0.063653052 0.48685959 5.4412854e-39 0.58710474 0.56344491 -0.58123815 0
-0.66295063 0.077741593 0.48837641 4.8862955e-39 -0.04580038 -0.7398535 0.67120731 0
-0.6139437 0.074626982 0.48803133 9.5846755e-39 -0.11208359 -0.76337993 0.63615119 0
-0.60319287 0.072043136 0.48773378 9.1244218e-39 -0.15091331 -0.49352857 0.85653651 0
-0.50564128 0.074844345 0.48611704 5.5327635e-39 0.55114031 0.34606591 -0.75926453 0
-0.51590294 0.08492633 0.48185384 4.7959174e-39 0.66378564 0.24557729 -0.70645624 0
-0.51377046 0.094039038 0.48698124 4.7037231e-39 0.6244697 0.30571505 -0.71873212 0
-0.53516614 0.11650506 0.4811281 3.3222278e-39 0.64116883 0.39662892 -0.65695357 0
-0.57785738 0.12659287 0.48861551 4.0590586e-39 0.63744611 0.36240628 0.67994422 0
-0.53241509 0.12257329 0.48687613 4.4278537e-39 0.588027 0.3640154 -0.72229981 0
-0.54142028 0.13117868 0.48145211 2.9530852e-39 0.72054666 0.29811853 -0.62604946 0
-0.53551584 0.13068584 0.4879058 3.1378338e-39 0.65685093 0.33236438 -0.67681664 0
-0.58051974 0.14391491 0.48487768 4.8863151e-39 0.68095124 0.093387879 0.72634983 0
-0.57247746 0.14207439 0.48260173 3.414778e-39 -0.16442902 0.53790385 0.82681471 0
-0.56559789 0.14639074 0.48628312 2.9530852e-39 -0.65870523 0.46450454 0.59189773 0
-0.55244613 0.14767392 0.48316097 2.5850271e-39 0.5228563 0.82556355 -0.21228789 0
-0.7456575 0.15025529 0.48929006 1.0049628e-38 -0.52147496 0.77344036 0.36035246 0
-0.73983598 0.15944777 0.48107201 9.3117054e-39 -0.73317075 0.520495 0.43765926 0
-0.57983589 0.15366894 0.48301119 5.1647069e-39 0.68765801 0.086372092 0.7208789 0
-0.56307817 0.151759 0.4816204 2.5839523e-39 -0.67664987 0.66760278 0.31056657 0
-0.55410135 0.1504578 0.48991039 3.6910061e-39 0.5228563 0.82556355 -0.21228789 0
-0.73313904 0.16216978 0.48905364 9.6797662e-39 -0.73317075 0.520495 0.43765926 0
-0.72996181 0.16768518 0.48201284 9.0351185e-39 -0.52892232 0.84789193 0.036338232 0
-0.58220851 0.16730738 0.48365578 4.4264272e-39 0.69374263 0.088495277 0.71476555 0
-0.70386928 0.17889856 0.48541307 8.022763e-39 -0.35246313 0.93581879 -0.0035773944 0
-0.58467054 0.17334276 0.48613083 4.5193319e-39 0.76499099 -0.010928086 0.64394826 0
-0.68234074 0.18519476 0.48570353 7.6557686e-39 -0.27354208 0.95019954 -0.14931691 0
-0.67926562 0.18617019 0.48463726 1.171057e-38 -0.35989475 0.92168236 -0.14483565 0
-0.59077442 0.18840134 0.48499793 7.4703081e-39 0.90752679 0.27225944 0.31979671 0
-0.5826931 0.18450576 0.48152116 4.4274978e-39 0.74188215 0.24416369 0.6244958 0
-0.6596272 0.19356696 0.48840517 8.6706464e-39 -0.20297919 0.94723445 -0.24808541 0
-0.64030439 0.19785529 0.48591614 8.8550488e-39 -0.2311554 0.96112233 -0.15103336 0
-0.6308316 0.19939972 0.48157269 1.1619476e-38 -0.16357665 0.98147947 -0.099703707 0
-0.59495497 0.19655137 0.48992306 9.2202314e-39 0.90752679 0.27225944 0.31979671 0
-0.62612313 0.20110977 0.48804006 1.7791914e-38 -0.19472983 0.97364908 -0.11869227 0
-0.61341065 0.20142496 0.48465478 1.6501891e-38 0.094096705 0.98801935 -0.12232618 0
-0.59832585 0.20145568 0.48185021 8.5766571e-39 0.75221086 0.65817666 0.031341344 0
-0.54761642 0.39943951 0.48139554 1.133673e-38 -0.30529964 -0.87826169 0.3680335 0
-0.53664166 0.39215422 0.48209018 1.4468166e-38 0.34078676 -0.70785296 0.61871523 0
-0.56613016 0.40931654 0.48158407 8.573769e-39 -0.50902677 -0.78018838 0.36359024 0
-0.55660117 0.40618795 0.4898029 9.9548859e-39 -0.78128362 -0.57567489 0.2412352 0
-0.5466367 0.40106666 0.4860912 9.7704989e-39 -0.30529964 -0.87826169 0.3680335 0
-0.57191062 0.41876152 0.48975524 7.0986277e-39 -0.57741392 -0.71178037 0.39995253 0
-0.5692721 0.41296962 0.48325676 1.0877205e-38 -0.57741392 -0.71178037 0.39995253 0
-0.53042144 0.41426557 0.48789796 8.2049893e-39 0.94964314 -0.1085298 0.29393744 0
-0.59487259 0.42860872 0.48198396 3.4126298e-39 -0.35166433 -0.88559699 0.30339786 0
-0.58635616 0.42527032 0.48368993 3.873252e-39 -0.44467381 -0.80586857 0.39094898 0
-0.52719861 0.42685094 0.4856354 1.8335351e-38 0.95766699 -0.21889633 0.1869715 0
-0.60221916 0.43447208 0.48838273 2.5835908e-39 -0.47376361 -0.82786804 0.30030429 0
-0.52587789 0.43439075 0.48264715 1.3915346e-38 0.97964829 -0.060891375 0.19126305 0
-0.65318882 0.44992909 0.48995885 1.8478306e-39 -0.36500567 -0.72849226 0.57971543 0
-0.53068966 0.44598481 0.4860723 1.1522212e-38 0.76078123 0.38697761 0.52101856 0
-0.66492939 0.45218682 0.48363662 1.4794124e-39 -0.57853913 -0.54927379 0.60298491 0
-0.53776413 0.45496702 0.48968673 6.8227807e-39 0.58989733 0.23202729 0.77342391 0
-0.68102062 0.46745652 0.48013327 7.4257608e-40 -0.53595507 -0.51209939 0.67119777 0
-0.67142123 0.46971253 0.4895449 1.8474761e-39 -0.57248807 -0.47325841 0.66954011 0
-0.66766787 0.46267903 0.4880904 1.1109943e-39 -0.60425192 -0.45022771 0.65739995 0
-0.5334022 0.46354175 0.4823243 7.1922765e-39 0.8134582 0.16712834 0.55709422 0
-0.67657125 0.4798629 0.48377979 5.3498198e-39 -0.57966143 0.37015408 0.72593296 0
-0.675583 0.48377156 0.48264974 3.4144193e-39 -0.62120956 0.32786083 0.71176261 0
-0.66901541 0.48225939 0.48907831 2.4928315e-39 -0.62120956 0.32786083 0.71176261 0
-0.53261077 0.48464784 0.48428249 6.3625186e-39 0.52071291 -0.23091729 0.82190955 0
-0.52817744 0.48375207 0.48122212 7.9291226e-39 0.52071291 -0.23091729 0.82190955 0
-0.6645298 0.49444661 0.48544744 1.1106383e-39 -0.53646171 0.51346976 0.66974449 0
-0.53585315 0.49507657 0.48609594 5.9937389e-39 0.82256496 0.10262726 0.55933386 0
-0.66300428 0.50283533 0.48023802 9.2624707e-40 -0.53646171 0.51346976 0.66974449 0
-0.65512383 0.50492704 0.48508626 1.8467558e-39 -0.47841656 0.56508392 0.67215908 0
-0.53791857 0.50662452 0.48453009 6.4539954e-39 0.88620025 0.29902416 0.35388368 0
-0.64512873 0.51154572 0.48440325 2.0307842e-39 -0.211803 0.83986974 0.49975818 0
-0.63614821 0.51337373 0.48829708 2.1247734e-39 -0.55687302 0.65492272 0.51085097 0
-0.62661827 0.52015448 0.48999551 5.343343e-39 -0.5497359 0.61845708 0.56151706 0
-0.54635364 0.52490318 0.48756063 7.2823253e-39 0.74783987 0.55982351 0.35683787 0
-0.61079097 0.53361034 0.48230779 6.9124666e-39 -0.35585436 0.74651611 0.5622111 0
-0.60884243 0.5367682 0.48114592 4.0576447e-39 -0.55758327 0.13647145 0.81882632 0
-0.55017513 0.53071785 0.48644704 7.281961e-39 0.74783987 0.55982351 0.35683787 0
-0.6063323 0.5471977 0.48111695 7.926264e-39 -0.55758327 0.13647145 0.81882632 0
-0.55735481 0.54680884 0.48361313 8.75421e-39 0.52171457 0.54056954 0.65999889 0
-0.60173726 0.55718774 0.48341137 6.3607376e-39 -0.39736563 -0.034879886 0.91699719 0
-0.59189266 0.55227953 0.48771149 9.3966913e-39 -0.30019197 0.15681714 0.94090021 0
-0.57149631 0.55982012 0.48481473 9.4003025e-39 0.55864477 0.43412706 0.70671767 0
-0.60336399 0.56794941 0.48273778 8.9443312e-39 -0.39760378 0.0043687001 0.91754681 0
-0.58027363 0.56363434 0.48633254 8.7588651e-39 -0.26233184 0.50508726 0.82223415 0
-0.57616401 0.56413889 0.48585153 9.3081096e-39 0.55864477 0.43412706 0.70671767 0
-0.62661743 0.57553172 0.48253521 7.1879787e-39 -0.27344537 -0.41016796 0.87005162 0
-0.61335599 0.57519114 0.48434824 1.1063428e-38 0.038736351 -0.42609984 0.90384644 0
-0.60282761 0.57422251 0.48344037 1.004532e-38 0.038736351 -0.42609984 0.90384644 0
-0.58606565 0.57433271 0.4812032 8.8517712e-39 0.27894291 0.0045722439 0.96029681 0
-0.6402275 0.58553702 0.48097658 2.1652237e-38 -0.0046380521 -0.22722724 0.9738307 0
-0.62144524 0.58768219 0.48431283 1.6862753e-38 -0.29903826 0.072493762 0.95148349 0
-0.60889298 0.58428162 0.48346928 1.8059489e-38 0.041423295 0.25314242 0.96654183 0
-0.59772766 0.58665049 0.48217911 1.5847513e-38 0.27052087 0.24391314 0.93130279 0
-0.64502633 0.59475458 0.48106742 6.2692524e-39 -0.3845194 0.10075735 0.9176017 0
-0.62444317 0.59489781 0.48341048 1.4096882e-38 -0.1553134 -0.079137504 0.98469031 0
-0.61764598 0.59341967 0.48406333 2.0362579e-38 0.22221397 0.074070655 0.97218031 0
-0.60682589 0.59936714 0.48090988 2.0823563e-38 0.21162745 0.31303155 0.92586452 0
-0.5989061 0.59235919 0.48092568 1.9533543e-38 0.041423295 0.25314242 0.96654183 0
-0.63641119 0.60632384 0.4808585 1.1892094e-38 -0.12791988 0.42640164 0.89544302 0
-0.62817532 0.60081673 0.48327541 2.1098697e-38 -0.0045117489 0.32028264 0.94731134 0
-0.61364675 0.60394269 0.48092198 8.6656143e-39 0.21162745 0.31303155 0.92586452 0
-0.44596702 -0.44012019 0.49921089 1.9531734e-38 -0.24688877 0.84994501 0.46544549 0
-0.42095047 -0.44144848 0.49753094 1.9624285e-38 0.20468517 0.95519698 0.21378213 0
-0.41209999 -0.44331679 0.49740487 1.9531371e-38 0.20468517 0.95519698 0.21378213 0
-0.4029218 -0.44374439 0.49524927 1.6858063e-38 0.050997742 0.97358984 0.22253554 0
-0.37660146 -0.44422755 0.49663448 1.9993075e-38 -0.055463713 0.97062254 0.23412772 0
-0.36274895 -0.44401848 0.49680972 1.9809045e-38 0.074070796 0.97218072 0.22221208 0
-0.3532058 -0.44417921 0.49384817 1.9624654e-38 0.075144216 0.98626947 0.14705737 0
-0.33060509 -0.4465771 0.49389064 1.9625011e-38 0.12706347 0.98827088 0.084708855 0
-0.31176406 -0.4472909 0.4962388 1.9071837e-38 -0.0094924895 0.99669445 0.08068534 0
-0.30564231 -0.44690433 0.4954831 1.8981449e-38 -0.014842996 0.97617716 0.21646674 0
-0.47690696 -0.43223143 0.49367344 1.9071479e-38 0.33346534 0.82066274 0.46401897 0
-0.46778446 -0.43672329 0.49644524 1.8703418e-38 0.23418127 0.85608083 0.46074381 0
-0.45799333 -0.4388513 0.49644327 1.8610143e-38 0.18074645 0.86265051 0.47240326 0
-0.44049633 -0.43953544 0.49727172 1.9625011e-38 -0.0046072495 0.96736187 0.2533572 0
-0.43242565 -0.43815574 0.49297643 2.0177828e-38 -0.003947522 0.82884204 0.55946881 0
-0.42917389 -0.43829268 0.49202546 1.9994507e-38 0.39427975 0.79210961 0.46594632 0
-0.48563576 -0.42656508 0.49499893 1.1516496e-38 0.563564 0.31398585 0.76407361 0
-0.49557427 -0.41740194 0.4981676 1.9072555e-38 0.52137125 0.38162121 0.76324129 0
-0.50295156 -0.40820318 0.49836779 1.6307775e-38 0.44508314 -0.09749417 0.89016628 0
-0.49279696 -0.40731636 0.49328023 5.8961805e-39 0.55737078 -0.14066941 0.81826031 0
-0.48968652 -0.40568653 0.49063084 0 0 0 0 0
-0.50339645 -0.39477986 0.49857935 1.5846434e-38 0.086337551 0.28627503 0.95424968 0
-0.48914033 -0.39967519 0.4916079 1.2713235e-38 0.69824648 -0.17622367 0.69382787 0
-0.51011497 -0.38175648 0.49714112 1.6399245e-38 0.075928137 0.033218518 0.9965598 0
-0.5093528 -0.38568741 0.49718073 1.6398529e-38 0.090092622 0.01896563 0.99575281 0
-0.49356833 -0.38406786 0.4957794 1.6675471e-38 0.058585562 0.019010361 0.99810129 0
-0.48296735 -0.38335824 0.49313393 1.4925561e-38 0.47351474 -0.4705182 0.744578 0
-0.50418687 -0.37461621 0.49645144 1.649216e-38 0.075928137 0.033218518 0.9965598 0
-0.48071563 -0.37772137 0.49426234 1.6123384e-38 0.37675357 -0.32301059 0.8681711 0
-0.50404561 -0.36596847 0.49621806 1.6675113e-38 0.075966641 -0.0094946055 0.99706513 0
-0.47250748 -0.36501217 0.49396166 1.6214496e-38 0.49149573 0.0071521448 0.87085062 0
-0.5115549 -0.35447305 0.49761981 1.6767308e-38 0.14557058 -0.079828188 0.98612207 0
-0.50544399 -0.35723287 0.49649429 1.6582917e-38 0.14557058 -0.079828188 0.98612207 0
-0.49284157 -0.35979199 0.49544522 1.6490724e-38 0.042815924 -0.0095133884 0.99903774 0
-0.48353434 -0.35970101 0.49504715 1.6490721e-38 0.042815924 -0.0095133884 0.99903774 0
-0.50000852 -0.34018362 0.49683148 1.6214134e-38 0.14590554 -0.042359643 0.98839122 0
-0.48377982 -0.34487396 0.49390367 1.5845715e-38 0.39095914 0.18613069 0.90139133 0
-0.50700414 -0.33890247 0.49801636 1.6675113e-38 0.61561197 -0.55723566 0.55723464 0
-0.49719828 -0.33726954 0.4965415 1.6582917e-38 0.14590554 -0.042359643 0.98839122 0
-0.49198076 -0.32603392 0.4950583 1.5845355e-38 0.66184986 0.22022586 0.71655792 0
-0.4926753 -0.31734025 0.49327153 1.5200345e-38 0.42737779 0.091018014 0.89947981 0
-0.50111091 -0.30543527 0.49999249 1.566168e-38 0.71929944 0.15497127 0.67719442 0
-0.4937219 -0.30328 0.49207419 1.510815e-38 0.70677614 -0.030290907 0.70678848 0
-0.49467149 -0.29558575 0.4933432 1.5200345e-38 0.7244671 -0.029712025 0.68866873 0
-0.49642456 -0.28264794 0.49599162 1.5200345e-38 0.70523757 -0.13467762 0.69606179 0
-0.49369386 -0.27297851 0.4987168 1.5200345e-38 0.65594852 -0.41869131 0.62803596 0
-0.48862803 -0.27660826 0.49057958 1.5200345e-38 0.70225406 -0.49560493 0.51109207 0
-0.48764238 -0.26423261 0.49837554 1.4371306e-38 0.64537537 -0.44829553 0.61848348 0
-0.48021898 -0.25440186 0.49865949 1.3911405e-38 0.62335837 -0.571639 0.5335291 0
-0.47465545 -0.25447902 0.49258199 1.492412e-38 0.64904666 -0.56340253 0.51119083 0
-0.47109348 -0.23251434 0.49355155 1.5754598e-38 0.67670709 0.53885895 0.50169569 0
-0.46466094 -0.23716486 0.49094126 1.5293976e-38 0.74877739 0.3857131 0.53903413 0
-0.47741362 -0.22507001 0.49659488 1.6122658e-38 0.71880209 0.43409047 0.54303682 0
-0.48234987 -0.21105711 0.49445015 1.5291459e-38 0.65346164 0.24271365 0.71699232 0
-0.47759986 -0.21990936 0.49281219 1.649144e-38 0.68707627 0.44025159 0.57801801 0
-0.48867247 -0.20930856 0.49979472 1.6123378e-38 0.67453593 0.26852053 0.68767583 0
-0.51355749 -0.1900461 0.49927175 6.1688045e-39 0.17434049 0.85143179 0.49464059 0
-0.49481675 -0.19355533 0.49642026 1.5475853e-38 0.52948338 0.5332495 0.65976685 0
-0.48483703 -0.1990916 0.49120796 1.4741888e-38 0.63428807 0.69661695 0.33526641 0
-0.55938184 -0.18215655 0.49495208 3.0320063e-39 0.21563782 0.95535374 0.20198908 0
-0.54258347 -0.18581101 0.49740332 5.7060285e-39 0.10895731 0.91524357 0.38788849 0
-0.53438181 -0.18663296 0.49697679 3.9553947e-39 0.085492 0.89112645 0.44562849 0
-0.5273639 -0.18615177 0.49077663 3.1263571e-39 0.069740199 0.97636408 -0.20457155 0
-0.5191853 -0.18720251 0.49426895 4.2330578e-39 0.070341662 0.98478466 0.15890601 0
-0.50457454 -0.1894415 0.49439532 7.2747891e-39 0.19104688 0.93302131 0.30491352 0
-0.59155464 -0.17353523 0.49497989 2.7557823e-39 -0.025598822 0.76796997 -0.63997406 0
-0.58683622 -0.17347164 0.49486744 4.3230912e-39 -0.025598822 0.76796997 -0.63997406 0
-0.57755816 -0.17550619 0.49387124 3.4940564e-39 0.41593099 0.90913177 -0.021928681 0
-0.56809187 -0.17986682 0.49357167 2.7572201e-39 0.21749158 0.95152283 0.21748973 0
-0.62594318 -0.16200194 0.49199998 4.2326935e-39 0.26831698 0.93911105 -0.21465428 0
-0.61307538 -0.16742861 0.49263239 3.3118246e-39 0.41755205 0.76248521 -0.49423337 0
-0.66409063 -0.15325733 0.49126008 1.0315073e-38 0.70013916 0.70014083 -0.14002872 0
-0.64050001 -0.1575 0.49349999 0 0 0 0 0
-0.6376158 -0.1575 0.49542284 0 0 0 0 0
-0.62464046 -0.15948543 0.49944037 1.1023847e-39 0.25399986 0.88900107 -0.38100034 0
-0.74576592 -0.13557202 0.49379328 8.3811255e-39 -0.44484678 0.88964927 -0.10312824 0
-0.73332268 -0.13569602 0.49150881 6.5375884e-39 -0.011405549 0.96911865 -0.24633105 0
-0.72016668 -0.13259512 0.49834031 6.9078059e-39 0.3447516 0.68950421 -0.63696969 0
-0.71569508 -0.13344763 0.49614167 9.4860451e-39 -0.045702174 0.95974493 -0.27712989 0
-0.69263768 -0.13556577 0.49008048 1.7779665e-38 0.11278563 0.9860903 -0.12208735 0
-0.68530214 -0.13037488 0.49325371 1.7319048e-38 0.29023471 0.1441575 -0.94603509 0
-0.6791634 -0.13967425 0.49067849 1.54755e-38 0.44088563 0.6861279 -0.57866085 0
-0.6844455 -0.12673187 0.49436632 2.350226e-38 -0.35210058 0.9359622 0 0
-0.67828 -0.12772277 0.49737543 1.8518309e-38 0.70013934 0.1400293 -0.70014048 0
-0.50222361 -0.061173785 0.49381673 1.2071095e-38 -0.61731136 -0.51022691 0.5988282 0
-0.49514365 -0.066763677 0.49561316 1.1517198e-38 -0.69951743 -0.57817274 0.41998994 0
-0.48638365 -0.061602771 0.49100685 1.142393e-38 0.81576848 -0.4744769 0.3307468 0
-0.51234156 -0.05249054 0.49103057 1.068707e-38 -0.60225868 -0.47391072 0.64241195 0
-0.50519007 -0.059047583 0.49177682 1.2254767e-38 -0.57000977 -0.55263835 0.60801291 0
-0.4833135 -0.052889697 0.49358302 1.1239536e-38 0.84125829 -0.31891659 0.43655089 0
-0.51286572 -0.042022444 0.49891052 1.004099e-38 -0.66340607 -0.4777393 0.57589716 0
-0.5083921 -0.047939874 0.49883032 1.0501971e-38 -0.62852448 -0.50808996 0.5888986 0
-0.47938889 -0.04418873 0.49499881 1.0133187e-38 0.97048855 -0.20796193 0.12208131 0
-0.52860224 -0.033494517 0.4900054 1.0319375e-38 -0.57473969 -0.46218586 0.67532104 0
-0.51927644 -0.034278341 0.49828109 9.6736397e-39 -0.62545192 -0.4869273 0.60968167 0
-0.47723442 -0.032387324 0.49769029 1.3360394e-38 0.93370414 -0.34035432 -0.111155 0
-0.52747369 -0.024702251 0.49620014 1.0042777e-38 -0.75048918 -0.36935112 0.54803813 0
-0.47438312 -0.024054438 0.49382633 9.9577698e-39 0.94668549 -0.29439676 0.13083248 0
-0.53584278 -0.013538469 0.49310607 1.022789e-38 -0.63087082 -0.4299877 0.64584255 0
-0.47175124 -0.017457157 0.49976975 1.3272847e-38 0.78348792 -0.54503399 -0.29847059 0
-0.54201066 -0.0061142142 0.49231875 1.0688862e-38 -0.52872378 -0.40283641 0.74711049 0
-0.53715813 -0.0095420461 0.49414796 1.1057289e-38 -0.65107673 -0.49605763 0.57447881 0
-0.55008185 0.0094976593 0.49597344 1.0319361e-38 -0.65372521 -0.49869496 0.56916326 0
-0.54588938 0.0023397543 0.49451709 1.0227528e-38 -0.65372521 -0.49869496 0.56916326 0
-0.47456098 0.004714231 0.49426699 5.3501617e-39 0.76167464 0.24137586 -0.60132307 0
-0.55398679 0.013206391 0.49492666 1.0781055e-38 -0.66059768 -0.47249967 0.58339942 0
-0.4722175 0.017631626 0.49991423 4.4278523e-39 0.9162904 0.0038143166 -0.40049648 0
-0.56729257 0.025269125 0.49387115 1.0873615e-38 -0.56057781 -0.59728193 0.57359117 0
-0.47528017 0.023102686 0.49530324 4.3356553e-39 0.93942344 -0.016301678 -0.34237081 0
-0.57618362 0.034833543 0.49464455 1.0597744e-38 -0.57593548 -0.52846009 0.6237213 0
-0.47589421 0.037401538 0.49531397 3.2296735e-39 0.92429382 0.18510582 -0.33379149 0
